-0.305000 0.759398 0.262745
-0.300000 0.759398 0.262745
-0.220000 0.759398 0.262745
-0.215000 0.759398 0.270588
-0.210000 0.759398 0.356863
-0.205000 0.759398 0.827451
-0.200000 0.759398 0.839216
-0.195000 0.759398 0.600000
-0.190000 0.759398 0.352941
-0.185000 0.759398 0.301961
-0.180000 0.759398 0.274510
-0.090000 0.759398 0.380392
-0.085000 0.759398 0.384314
-0.080000 0.759398 0.325490
-0.075000 0.759398 0.301961
-0.070000 0.759398 0.254902
0.120000 0.759398 0.172549
0.125000 0.759398 0.337255
0.130000 0.759398 0.823529
0.135000 0.759398 0.803922
0.140000 0.759398 0.803922
0.145000 0.759398 0.803922
0.150000 0.759398 0.639216
0.155000 0.759398 0.654902
0.160000 0.759398 0.670588
0.165000 0.759398 0.780392
0.170000 0.759398 0.776471
0.175000 0.759398 0.678431
0.200000 0.759398 0.800000
0.205000 0.759398 0.600000
0.210000 0.759398 0.701961
0.215000 0.759398 0.780392
0.220000 0.759398 0.258824
0.225000 0.759398 0.047059
0.235000 0.759398 0.098039
0.240000 0.759398 0.090196
0.245000 0.759398 0.113725
0.250000 0.759398 0.333333
0.255000 0.759398 0.549020
0.260000 0.759398 0.435294
0.265000 0.759398 0.486275
0.270000 0.759398 0.501961
0.275000 0.759398 0.450980
0.280000 0.759398 0.474510
0.285000 0.759398 0.368627
0.290000 0.759398 0.521569
0.295000 0.759398 0.466667
0.300000 0.759398 0.443137
0.305000 0.759398 0.603922
0.310000 0.759398 0.345098
0.315000 0.759398 0.447059
0.320000 0.759398 0.415686
0.325000 0.759398 0.615686
0.330000 0.759398 0.584314
0.335000 0.759398 0.494118
0.340000 0.759398 0.486275
0.345000 0.759398 0.435294
0.350000 0.759398 0.384314
0.355000 0.759398 0.368627
0.360000 0.759398 0.352941
0.365000 0.759398 0.309804
0.370000 0.759398 0.317647
0.375000 0.759398 0.164706
0.565000 0.759398 0.290196
0.570000 0.759398 0.258824
0.575000 0.759398 0.780392
0.580000 0.759398 0.670588
0.585000 0.759398 0.635294
0.590000 0.759398 0.631373
0.595000 0.759398 0.568627
0.600000 0.759398 0.529412
0.605000 0.759398 0.513725
0.610000 0.759398 0.301961
0.630000 0.759398 0.274510
0.635000 0.759398 0.839216
0.640000 0.759398 0.929412
0.650000 0.759398 0.913725
0.655000 0.759398 0.447059
0.660000 0.759398 0.286275
0.675000 0.759398 0.333333
0.680000 0.759398 0.301961
0.685000 0.759398 0.270588
0.690000 0.759398 0.258824
0.695000 0.759398 0.270588
-0.990000 0.766917 0.145098
-0.985000 0.766917 0.137255
-0.980000 0.766917 0.176471
-0.975000 0.766917 0.223529
-0.970000 0.766917 0.247059
-0.965000 0.766917 0.345098
-0.960000 0.766917 0.321569
-0.955000 0.766917 0.254902
-0.950000 0.766917 0.262745
-0.945000 0.766917 0.258824
-0.940000 0.766917 0.266667
-0.880000 0.766917 0.121569
-0.875000 0.766917 0.239216
-0.870000 0.766917 0.262745
-0.865000 0.766917 0.290196
-0.860000 0.766917 0.313725
-0.855000 0.766917 0.266667
-0.745000 0.766917 0.164706
-0.740000 0.766917 0.258824
-0.735000 0.766917 0.258824
-0.340000 0.766917 0.266667
-0.335000 0.766917 0.643137
-0.330000 0.766917 0.713725
-0.320000 0.766917 0.611765
-0.315000 0.766917 0.584314
-0.310000 0.766917 0.521569
-0.305000 0.766917 0.435294
-0.300000 0.766917 0.262745
-0.220000 0.766917 0.141176
-0.215000 0.766917 0.278431
-0.210000 0.766917 0.525490
-0.205000 0.766917 0.733333
-0.195000 0.766917 0.658824
-0.190000 0.766917 0.552941
-0.185000 0.766917 0.337255
-0.180000 0.766917 0.258824
-0.090000 0.766917 0.333333
-0.085000 0.766917 0.580392
-0.080000 0.766917 0.635294
-0.075000 0.766917 0.537255
-0.070000 0.766917 0.235294
-0.065000 0.766917 0.239216
0.120000 0.766917 0.188235
0.125000 0.766917 0.349020
0.130000 0.766917 0.827451
0.140000 0.766917 0.764706
0.145000 0.766917 0.800000
0.150000 0.766917 0.643137
0.155000 0.766917 0.584314
0.160000 0.766917 0.678431
0.165000 0.766917 0.815686
0.170000 0.766917 0.749020
0.175000 0.766917 0.674510
0.195000 0.766917 0.886275
0.200000 0.766917 0.756863
0.205000 0.766917 0.415686
0.210000 0.766917 0.439216
0.215000 0.766917 0.760784
0.220000 0.766917 0.274510
0.225000 0.766917 0.086275
0.245000 0.766917 0.098039
0.250000 0.766917 0.450980
0.255000 0.766917 0.749020
0.260000 0.766917 0.600000
0.265000 0.766917 0.647059
0.270000 0.766917 0.705882
0.275000 0.766917 0.588235
0.280000 0.766917 0.482353
0.285000 0.766917 0.349020
0.290000 0.766917 0.772549
0.295000 0.766917 0.686275
0.300000 0.766917 0.760784
0.305000 0.766917 0.635294
0.310000 0.766917 0.223529
0.315000 0.766917 0.439216
0.320000 0.766917 0.678431
0.325000 0.766917 0.631373
0.330000 0.766917 0.556863
0.335000 0.766917 0.474510
0.340000 0.766917 0.403922
0.345000 0.766917 0.388235
0.365000 0.766917 0.439216
0.370000 0.766917 0.317647
0.375000 0.766917 0.203922
0.395000 0.766917 0.215686
0.400000 0.766917 0.258824
0.405000 0.766917 0.258824
0.425000 0.766917 0.286275
0.430000 0.766917 0.298039
0.435000 0.766917 0.286275
0.565000 0.766917 0.270588
0.570000 0.766917 0.305882
0.575000 0.766917 0.772549
0.580000 0.766917 0.701961
0.585000 0.766917 0.674510
0.590000 0.766917 0.650980
0.595000 0.766917 0.611765
0.600000 0.766917 0.549020
0.605000 0.766917 0.513725
0.610000 0.766917 0.274510
0.630000 0.766917 0.298039
0.635000 0.766917 0.823529
0.640000 0.766917 0.933333
0.650000 0.766917 0.913725
0.655000 0.766917 0.458824
0.660000 0.766917 0.290196
0.670000 0.766917 0.345098
0.675000 0.766917 0.349020
0.680000 0.766917 0.356863
0.685000 0.766917 0.254902
0.690000 0.766917 0.317647
0.695000 0.766917 0.333333
-0.995000 0.774436 0.137255
-0.990000 0.774436 0.262745
-0.985000 0.774436 0.215686
-0.980000 0.774436 0.262745
-0.975000 0.774436 0.223529
-0.970000 0.774436 0.423529
-0.965000 0.774436 0.580392
-0.960000 0.774436 0.533333
-0.955000 0.774436 0.494118
-0.950000 0.774436 0.509804
-0.945000 0.774436 0.498039
-0.940000 0.774436 0.258824
-0.745000 0.774436 0.137255
-0.740000 0.774436 0.262745
-0.735000 0.774436 0.282353
-0.615000 0.774436 0.270588
-0.610000 0.774436 0.325490
-0.605000 0.774436 0.313725
-0.600000 0.774436 0.294118
-0.595000 0.774436 0.282353
-0.340000 0.774436 0.192157
-0.335000 0.774436 0.592157
-0.330000 0.774436 0.815686
-0.315000 0.774436 0.780392
-0.310000 0.774436 0.835294
-0.305000 0.774436 0.611765
-0.300000 0.774436 0.247059
-0.295000 0.774436 0.235294
-0.235000 0.774436 0.447059
-0.230000 0.774436 0.517647
-0.225000 0.774436 0.462745
-0.220000 0.774436 0.431373
-0.215000 0.774436 0.368627
-0.210000 0.774436 0.666667
-0.205000 0.774436 0.650980
-0.195000 0.774436 0.603922
-0.190000 0.774436 0.682353
-0.185000 0.774436 0.458824
-0.180000 0.774436 0.301961
-0.095000 0.774436 0.239216
-0.090000 0.774436 0.258824
-0.085000 0.774436 0.592157
-0.080000 0.774436 0.635294
-0.075000 0.774436 0.623529
-0.070000 0.774436 0.380392
-0.065000 0.774436 0.243137
0.120000 0.774436 0.172549
0.125000 0.774436 0.352941
0.130000 0.774436 0.835294
0.140000 0.774436 0.803922
0.145000 0.774436 0.776471
0.150000 0.774436 0.745098
0.155000 0.774436 0.678431
0.160000 0.774436 0.698039
0.165000 0.774436 0.823529
0.170000 0.774436 0.768627
0.175000 0.774436 0.670588
0.195000 0.774436 0.898039
0.200000 0.774436 0.800000
0.205000 0.774436 0.415686
0.210000 0.774436 0.262745
0.215000 0.774436 0.752941
0.220000 0.774436 0.247059
0.225000 0.774436 0.086275
0.245000 0.774436 0.074510
0.250000 0.774436 0.450980
0.255000 0.774436 0.705882
0.270000 0.774436 0.694118
0.275000 0.774436 0.611765
0.280000 0.774436 0.600000
0.285000 0.774436 0.447059
0.290000 0.774436 0.823529
0.295000 0.774436 0.705882
0.300000 0.774436 0.788235
0.305000 0.774436 0.666667
0.310000 0.774436 0.262745
0.315000 0.774436 0.482353
0.320000 0.774436 0.741176
0.325000 0.774436 0.717647
0.330000 0.774436 0.650980
0.335000 0.774436 0.568627
0.340000 0.774436 0.419608
0.365000 0.774436 0.423529
0.370000 0.774436 0.309804
0.375000 0.774436 0.200000
0.395000 0.774436 0.219608
0.400000 0.774436 0.266667
0.405000 0.774436 0.290196
0.410000 0.774436 0.266667
0.415000 0.774436 0.286275
0.420000 0.774436 0.290196
0.425000 0.774436 0.266667
0.430000 0.774436 0.258824
0.435000 0.774436 0.258824
0.440000 0.774436 0.286275
0.445000 0.774436 0.290196
0.450000 0.774436 0.313725
0.455000 0.774436 0.282353
0.460000 0.774436 0.298039
0.565000 0.774436 0.266667
0.570000 0.774436 0.278431
0.575000 0.774436 0.749020
0.580000 0.774436 0.827451
0.585000 0.774436 0.886275
0.590000 0.774436 0.901961
0.595000 0.774436 0.721569
0.600000 0.774436 0.549020
0.630000 0.774436 0.309804
0.635000 0.774436 0.827451
0.640000 0.774436 0.929412
0.650000 0.774436 0.921569
0.655000 0.774436 0.454902
0.660000 0.774436 0.313725
0.670000 0.774436 0.266667
0.675000 0.774436 0.262745
0.680000 0.774436 0.121569
0.685000 0.774436 0.129412
0.690000 0.774436 0.180392
0.695000 0.774436 0.196078
0.735000 0.774436 0.270588
0.740000 0.774436 0.250980
0.745000 0.774436 0.278431
0.750000 0.774436 0.266667
0.970000 0.774436 0.282353
0.975000 0.774436 0.301961
0.980000 0.774436 0.290196
0.985000 0.774436 0.282353
0.990000 0.774436 0.286275
0.995000 0.774436 0.278431
-0.995000 0.781955 0.196078
-0.990000 0.781955 0.262745
-0.985000 0.781955 0.317647
-0.980000 0.781955 0.431373
-0.975000 0.781955 0.419608
-0.970000 0.781955 0.650980
-0.965000 0.781955 0.643137
-0.960000 0.781955 0.588235
-0.955000 0.781955 0.654902
-0.950000 0.781955 0.670588
-0.945000 0.781955 0.631373
-0.940000 0.781955 0.266667
-0.775000 0.781955 0.250980
-0.770000 0.781955 0.286275
-0.765000 0.781955 0.247059
-0.745000 0.781955 0.145098
-0.740000 0.781955 0.262745
-0.735000 0.781955 0.290196
-0.730000 0.781955 0.262745
-0.615000 0.781955 0.337255
-0.610000 0.781955 0.643137
-0.605000 0.781955 0.690196
-0.600000 0.781955 0.650980
-0.595000 0.781955 0.360784
-0.590000 0.781955 0.262745
-0.525000 0.781955 0.262745
-0.520000 0.781955 0.247059
-0.515000 0.781955 0.250980
-0.510000 0.781955 0.309804
-0.505000 0.781955 0.254902
-0.500000 0.781955 0.262745
-0.465000 0.781955 0.282353
-0.460000 0.781955 0.301961
-0.455000 0.781955 0.270588
-0.450000 0.781955 0.290196
-0.380000 0.781955 0.188235
-0.375000 0.781955 0.133333
-0.370000 0.781955 0.298039
-0.365000 0.781955 0.207843
-0.360000 0.781955 0.192157
-0.340000 0.781955 0.203922
-0.335000 0.781955 0.439216
-0.330000 0.781955 0.545098
-0.310000 0.781955 0.576471
-0.305000 0.781955 0.478431
-0.300000 0.781955 0.352941
-0.295000 0.781955 0.368627
-0.240000 0.781955 0.227451
-0.235000 0.781955 0.521569
-0.230000 0.781955 0.443137
-0.225000 0.781955 0.568627
-0.220000 0.781955 0.517647
-0.215000 0.781955 0.474510
-0.210000 0.781955 0.733333
-0.190000 0.781955 0.737255
-0.185000 0.781955 0.490196
-0.180000 0.781955 0.282353
-0.095000 0.781955 0.266667
-0.090000 0.781955 0.250980
-0.085000 0.781955 0.662745
-0.080000 0.781955 0.756863
-0.075000 0.781955 0.647059
-0.070000 0.781955 0.329412
-0.065000 0.781955 0.266667
-0.060000 0.781955 0.219608
0.025000 0.781955 0.278431
0.030000 0.781955 0.262745
0.035000 0.781955 0.254902
0.040000 0.781955 0.266667
0.120000 0.781955 0.192157
0.125000 0.781955 0.380392
0.130000 0.781955 0.843137
0.135000 0.781955 0.741176
0.140000 0.781955 0.792157
0.145000 0.781955 0.556863
0.150000 0.781955 0.462745
0.155000 0.781955 0.584314
0.160000 0.781955 0.643137
0.165000 0.781955 0.776471
0.170000 0.781955 0.764706
0.175000 0.781955 0.674510
0.190000 0.781955 0.894118
0.195000 0.781955 0.882353
0.200000 0.781955 0.741176
0.205000 0.781955 0.360784
0.210000 0.781955 0.333333
0.215000 0.781955 0.788235
0.220000 0.781955 0.517647
0.225000 0.781955 0.125490
0.245000 0.781955 0.078431
0.250000 0.781955 0.470588
0.255000 0.781955 0.776471
0.270000 0.781955 0.776471
0.275000 0.781955 0.639216
0.280000 0.781955 0.549020
0.285000 0.781955 0.415686
0.290000 0.781955 0.811765
0.295000 0.781955 0.717647
0.300000 0.781955 0.819608
0.305000 0.781955 0.698039
0.310000 0.781955 0.290196
0.315000 0.781955 0.494118
0.320000 0.781955 0.752941
0.325000 0.781955 0.725490
0.330000 0.781955 0.619608
0.335000 0.781955 0.533333
0.340000 0.781955 0.439216
0.365000 0.781955 0.427451
0.370000 0.781955 0.305882
0.375000 0.781955 0.192157
0.395000 0.781955 0.207843
0.400000 0.781955 0.254902
0.405000 0.781955 0.274510
0.410000 0.781955 0.262745
0.415000 0.781955 0.278431
0.420000 0.781955 0.396078
0.425000 0.781955 0.556863
0.430000 0.781955 0.576471
0.435000 0.781955 0.439216
0.440000 0.781955 0.317647
0.445000 0.781955 0.298039
0.450000 0.781955 0.282353
0.455000 0.781955 0.266667
0.460000 0.781955 0.368627
0.465000 0.781955 0.380392
0.470000 0.781955 0.360784
0.475000 0.781955 0.278431
0.480000 0.781955 0.258824
0.485000 0.781955 0.278431
0.570000 0.781955 0.313725
0.575000 0.781955 0.745098
0.580000 0.781955 0.850980
0.585000 0.781955 0.925490
0.590000 0.781955 0.941176
0.595000 0.781955 0.776471
0.600000 0.781955 0.576471
0.605000 0.781955 0.517647
0.630000 0.781955 0.341176
0.635000 0.781955 0.831373
0.640000 0.781955 0.921569
0.650000 0.781955 0.909804
0.655000 0.781955 0.458824
0.660000 0.781955 0.278431
0.670000 0.781955 0.305882
0.675000 0.781955 0.384314
0.680000 0.781955 0.105882
0.685000 0.781955 0.184314
0.690000 0.781955 0.231373
0.695000 0.781955 0.286275
0.700000 0.781955 0.282353
0.705000 0.781955 0.274510
0.710000 0.781955 0.207843
0.715000 0.781955 0.243137
0.720000 0.781955 0.250980
0.725000 0.781955 0.262745
0.730000 0.781955 0.286275
0.735000 0.781955 0.298039
0.740000 0.781955 0.294118
0.745000 0.781955 0.286275
0.750000 0.781955 0.262745
0.755000 0.781955 0.254902
0.760000 0.781955 0.258824
0.765000 0.781955 0.286275
0.970000 0.781955 0.529412
0.975000 0.781955 0.466667
0.980000 0.781955 0.352941
0.985000 0.781955 0.301961
0.990000 0.781955 0.317647
0.995000 0.781955 0.309804
-0.995000 0.789474 0.168627
-0.990000 0.789474 0.247059
-0.985000 0.789474 0.352941
-0.980000 0.789474 0.356863
-0.975000 0.789474 0.372549
-0.970000 0.789474 0.564706
-0.965000 0.789474 0.631373
-0.960000 0.789474 0.435294
-0.955000 0.789474 0.509804
-0.950000 0.789474 0.701961
-0.945000 0.789474 0.560784
-0.940000 0.789474 0.266667
-0.920000 0.789474 0.274510
-0.915000 0.789474 0.262745
-0.910000 0.789474 0.250980
-0.905000 0.789474 0.270588
-0.900000 0.789474 0.266667
-0.895000 0.789474 0.298039
-0.890000 0.789474 0.270588
-0.785000 0.789474 0.301961
-0.780000 0.789474 0.278431
-0.775000 0.789474 0.266667
-0.770000 0.789474 0.282353
-0.765000 0.789474 0.325490
-0.760000 0.789474 0.345098
-0.755000 0.789474 0.235294
-0.745000 0.789474 0.152941
-0.740000 0.789474 0.247059
-0.735000 0.789474 0.286275
-0.730000 0.789474 0.243137
-0.725000 0.789474 0.243137
-0.720000 0.789474 0.262745
-0.715000 0.789474 0.247059
-0.620000 0.789474 0.258824
-0.615000 0.789474 0.376471
-0.610000 0.789474 0.823529
-0.605000 0.789474 0.862745
-0.600000 0.789474 0.839216
-0.595000 0.789474 0.392157
-0.590000 0.789474 0.258824
-0.585000 0.789474 0.278431
-0.580000 0.789474 0.250980
-0.530000 0.789474 0.270588
-0.525000 0.789474 0.274510
-0.520000 0.789474 0.294118
-0.515000 0.789474 0.443137
-0.510000 0.789474 0.443137
-0.505000 0.789474 0.329412
-0.500000 0.789474 0.352941
-0.495000 0.789474 0.337255
-0.490000 0.789474 0.301961
-0.485000 0.789474 0.290196
-0.465000 0.789474 0.262745
-0.460000 0.789474 0.270588
-0.455000 0.789474 0.309804
-0.450000 0.789474 0.352941
-0.445000 0.789474 0.286275
-0.440000 0.789474 0.298039
-0.380000 0.789474 0.133333
-0.375000 0.789474 0.207843
-0.370000 0.789474 0.317647
-0.365000 0.789474 0.196078
-0.360000 0.789474 0.192157
-0.340000 0.789474 0.227451
-0.335000 0.789474 0.576471
-0.330000 0.789474 0.545098
-0.325000 0.789474 0.741176
-0.310000 0.789474 0.745098
-0.305000 0.789474 0.568627
-0.300000 0.789474 0.372549
-0.295000 0.789474 0.356863
-0.290000 0.789474 0.349020
-0.285000 0.789474 0.258824
-0.280000 0.789474 0.262745
-0.275000 0.789474 0.262745
-0.270000 0.789474 0.137255
-0.245000 0.789474 0.219608
-0.240000 0.789474 0.219608
-0.235000 0.789474 0.447059
-0.230000 0.789474 0.596078
-0.225000 0.789474 0.725490
-0.220000 0.789474 0.650980
-0.215000 0.789474 0.662745
-0.190000 0.789474 0.709804
-0.185000 0.789474 0.494118
-0.180000 0.789474 0.274510
-0.095000 0.789474 0.423529
-0.090000 0.789474 0.380392
-0.085000 0.789474 0.682353
-0.075000 0.789474 0.635294
-0.070000 0.789474 0.431373
-0.065000 0.789474 0.278431
-0.060000 0.789474 0.219608
-0.055000 0.789474 0.156863
-0.050000 0.789474 0.223529
-0.045000 0.789474 0.247059
-0.040000 0.789474 0.223529
0.025000 0.789474 0.262745
0.030000 0.789474 0.286275
0.035000 0.789474 0.474510
0.040000 0.789474 0.517647
0.045000 0.789474 0.400000
0.120000 0.789474 0.192157
0.125000 0.789474 0.400000
0.130000 0.789474 0.678431
0.135000 0.789474 0.662745
0.140000 0.789474 0.803922
0.145000 0.789474 0.364706
0.150000 0.789474 0.360784
0.155000 0.789474 0.654902
0.160000 0.789474 0.737255
0.190000 0.789474 0.815686
0.195000 0.789474 0.807843
0.200000 0.789474 0.835294
0.205000 0.789474 0.619608
0.210000 0.789474 0.674510
0.215000 0.789474 0.772549
0.220000 0.789474 0.596078
0.225000 0.789474 0.149020
0.245000 0.789474 0.101961
0.250000 0.789474 0.494118
0.255000 0.789474 0.776471
0.270000 0.789474 0.721569
0.275000 0.789474 0.584314
0.280000 0.789474 0.564706
0.285000 0.789474 0.419608
0.290000 0.789474 0.800000
0.295000 0.789474 0.670588
0.300000 0.789474 0.768627
0.305000 0.789474 0.650980
0.310000 0.789474 0.258824
0.315000 0.789474 0.482353
0.320000 0.789474 0.760784
0.325000 0.789474 0.737255
0.330000 0.789474 0.615686
0.335000 0.789474 0.533333
0.340000 0.789474 0.403922
0.365000 0.789474 0.415686
0.370000 0.789474 0.298039
0.375000 0.789474 0.192157
0.400000 0.789474 0.309804
0.405000 0.789474 0.305882
0.410000 0.789474 0.494118
0.415000 0.789474 0.435294
0.420000 0.789474 0.419608
0.425000 0.789474 0.552941
0.430000 0.789474 0.615686
0.435000 0.789474 0.521569
0.440000 0.789474 0.427451
0.445000 0.789474 0.462745
0.450000 0.789474 0.478431
0.455000 0.789474 0.352941
0.460000 0.789474 0.341176
0.465000 0.789474 0.486275
0.470000 0.789474 0.529412
0.475000 0.789474 0.376471
0.480000 0.789474 0.396078
0.485000 0.789474 0.392157
0.490000 0.789474 0.376471
0.495000 0.789474 0.298039
0.500000 0.789474 0.349020
0.505000 0.789474 0.321569
0.510000 0.789474 0.282353
0.515000 0.789474 0.270588
0.520000 0.789474 0.231373
0.570000 0.789474 0.278431
0.575000 0.789474 0.745098
0.580000 0.789474 0.843137
0.590000 0.789474 0.937255
0.595000 0.789474 0.749020
0.600000 0.789474 0.549020
0.605000 0.789474 0.486275
0.630000 0.789474 0.317647
0.635000 0.789474 0.819608
0.640000 0.789474 0.929412
0.650000 0.789474 0.913725
0.655000 0.789474 0.466667
0.660000 0.789474 0.254902
0.670000 0.789474 0.294118
0.675000 0.789474 0.286275
0.680000 0.789474 0.070588
0.685000 0.789474 0.207843
0.690000 0.789474 0.254902
0.695000 0.789474 0.345098
0.700000 0.789474 0.266667
0.705000 0.789474 0.392157
0.710000 0.789474 0.352941
0.715000 0.789474 0.266667
0.720000 0.789474 0.227451
0.725000 0.789474 0.258824
0.730000 0.789474 0.317647
0.735000 0.789474 0.407843
0.740000 0.789474 0.415686
0.745000 0.789474 0.458824
0.750000 0.789474 0.372549
0.755000 0.789474 0.329412
0.760000 0.789474 0.298039
0.765000 0.789474 0.333333
0.770000 0.789474 0.349020
0.775000 0.789474 0.282353
0.960000 0.789474 0.470588
0.965000 0.789474 0.372549
0.970000 0.789474 0.372549
0.975000 0.789474 0.552941
0.980000 0.789474 0.725490
0.985000 0.789474 0.713725
0.990000 0.789474 0.666667
0.995000 0.789474 0.623529
-0.980000 0.796992 0.231373
-0.975000 0.796992 0.290196
-0.970000 0.796992 0.282353
-0.965000 0.796992 0.333333
-0.960000 0.796992 0.439216
-0.955000 0.796992 0.462745
-0.950000 0.796992 0.490196
-0.945000 0.796992 0.325490
-0.940000 0.796992 0.227451
-0.930000 0.796992 0.215686
-0.925000 0.796992 0.215686
-0.920000 0.796992 0.282353
-0.915000 0.796992 0.301961
-0.910000 0.796992 0.325490
-0.905000 0.796992 0.392157
-0.900000 0.796992 0.407843
-0.895000 0.796992 0.294118
-0.890000 0.796992 0.203922
-0.885000 0.796992 0.098039
-0.790000 0.796992 0.274510
-0.785000 0.796992 0.325490
-0.780000 0.796992 0.443137
-0.775000 0.796992 0.521569
-0.770000 0.796992 0.509804
-0.765000 0.796992 0.537255
-0.760000 0.796992 0.407843
-0.755000 0.796992 0.160784
-0.740000 0.796992 0.333333
-0.735000 0.796992 0.458824
-0.730000 0.796992 0.478431
-0.725000 0.796992 0.447059
-0.720000 0.796992 0.356863
-0.715000 0.796992 0.262745
-0.620000 0.796992 0.200000
-0.615000 0.796992 0.313725
-0.610000 0.796992 0.807843
-0.605000 0.796992 0.815686
-0.600000 0.796992 0.850980
-0.595000 0.796992 0.509804
-0.590000 0.796992 0.462745
-0.585000 0.796992 0.458824
-0.580000 0.796992 0.309804
-0.575000 0.796992 0.231373
-0.530000 0.796992 0.278431
-0.525000 0.796992 0.266667
-0.520000 0.796992 0.368627
-0.515000 0.796992 0.749020
-0.510000 0.796992 0.686275
-0.505000 0.796992 0.372549
-0.500000 0.796992 0.454902
-0.495000 0.796992 0.517647
-0.490000 0.796992 0.494118
-0.485000 0.796992 0.439216
-0.480000 0.796992 0.380392
-0.475000 0.796992 0.329412
-0.470000 0.796992 0.325490
-0.465000 0.796992 0.349020
-0.460000 0.796992 0.313725
-0.455000 0.796992 0.533333
-0.450000 0.796992 0.592157
-0.445000 0.796992 0.294118
-0.440000 0.796992 0.294118
-0.435000 0.796992 0.290196
-0.415000 0.796992 0.254902
-0.410000 0.796992 0.200000
-0.405000 0.796992 0.192157
-0.380000 0.796992 0.176471
-0.375000 0.796992 0.325490
-0.370000 0.796992 0.431373
-0.365000 0.796992 0.211765
-0.360000 0.796992 0.184314
-0.340000 0.796992 0.192157
-0.335000 0.796992 0.635294
-0.330000 0.796992 0.482353
-0.325000 0.796992 0.784314
-0.320000 0.796992 0.725490
-0.315000 0.796992 0.600000
-0.310000 0.796992 0.788235
-0.305000 0.796992 0.705882
-0.300000 0.796992 0.572549
-0.295000 0.796992 0.505882
-0.290000 0.796992 0.431373
-0.285000 0.796992 0.658824
-0.280000 0.796992 0.529412
-0.275000 0.796992 0.482353
-0.270000 0.796992 0.407843
-0.245000 0.796992 0.172549
-0.240000 0.796992 0.196078
-0.235000 0.796992 0.392157
-0.230000 0.796992 0.780392
-0.225000 0.796992 0.839216
-0.190000 0.796992 0.737255
-0.185000 0.796992 0.580392
-0.180000 0.796992 0.325490
-0.135000 0.796992 0.282353
-0.130000 0.796992 0.305882
-0.125000 0.796992 0.278431
-0.120000 0.796992 0.188235
-0.095000 0.796992 0.498039
-0.090000 0.796992 0.392157
-0.085000 0.796992 0.690196
-0.080000 0.796992 0.745098
-0.075000 0.796992 0.686275
-0.070000 0.796992 0.490196
-0.065000 0.796992 0.400000
-0.060000 0.796992 0.298039
-0.055000 0.796992 0.211765
-0.050000 0.796992 0.274510
-0.045000 0.796992 0.290196
-0.040000 0.796992 0.254902
-0.035000 0.796992 0.223529
0.020000 0.796992 0.219608
0.025000 0.796992 0.227451
0.030000 0.796992 0.309804
0.035000 0.796992 0.607843
0.040000 0.796992 0.529412
0.045000 0.796992 0.231373
0.050000 0.796992 0.223529
0.090000 0.796992 0.196078
0.095000 0.796992 0.188235
0.100000 0.796992 0.215686
0.105000 0.796992 0.223529
0.110000 0.796992 0.286275
0.115000 0.796992 0.215686
0.125000 0.796992 0.345098
0.130000 0.796992 0.392157
0.135000 0.796992 0.603922
0.140000 0.796992 0.819608
0.145000 0.796992 0.298039
0.150000 0.796992 0.313725
0.155000 0.796992 0.576471
0.160000 0.796992 0.615686
0.165000 0.796992 0.768627
0.190000 0.796992 0.745098
0.195000 0.796992 0.725490
0.200000 0.796992 0.749020
0.205000 0.796992 0.627451
0.210000 0.796992 0.729412
0.215000 0.796992 0.803922
0.220000 0.796992 0.525490
0.225000 0.796992 0.137255
0.245000 0.796992 0.105882
0.250000 0.796992 0.494118
0.255000 0.796992 0.749020
0.270000 0.796992 0.745098
0.275000 0.796992 0.600000
0.280000 0.796992 0.615686
0.285000 0.796992 0.450980
0.290000 0.796992 0.788235
0.295000 0.796992 0.658824
0.300000 0.796992 0.772549
0.305000 0.796992 0.709804
0.310000 0.796992 0.345098
0.315000 0.796992 0.529412
0.320000 0.796992 0.752941
0.325000 0.796992 0.670588
0.330000 0.796992 0.498039
0.335000 0.796992 0.439216
0.340000 0.796992 0.403922
0.365000 0.796992 0.431373
0.370000 0.796992 0.290196
0.375000 0.796992 0.180392
0.400000 0.796992 0.345098
0.405000 0.796992 0.325490
0.410000 0.796992 0.560784
0.415000 0.796992 0.494118
0.420000 0.796992 0.400000
0.425000 0.796992 0.392157
0.430000 0.796992 0.450980
0.435000 0.796992 0.454902
0.440000 0.796992 0.356863
0.445000 0.796992 0.345098
0.455000 0.796992 0.321569
0.460000 0.796992 0.254902
0.465000 0.796992 0.380392
0.470000 0.796992 0.686275
0.475000 0.796992 0.647059
0.480000 0.796992 0.694118
0.485000 0.796992 0.564706
0.490000 0.796992 0.352941
0.495000 0.796992 0.364706
0.500000 0.796992 0.286275
0.505000 0.796992 0.513725
0.510000 0.796992 0.545098
0.515000 0.796992 0.482353
0.520000 0.796992 0.317647
0.570000 0.796992 0.250980
0.575000 0.796992 0.756863
0.580000 0.796992 0.827451
0.595000 0.796992 0.772549
0.600000 0.796992 0.525490
0.605000 0.796992 0.505882
0.630000 0.796992 0.309804
0.635000 0.796992 0.811765
0.640000 0.796992 0.937255
0.650000 0.796992 0.941176
0.655000 0.796992 0.470588
0.660000 0.796992 0.274510
0.670000 0.796992 0.290196
0.675000 0.796992 0.278431
0.680000 0.796992 0.086275
0.685000 0.796992 0.180392
0.690000 0.796992 0.235294
0.695000 0.796992 0.396078
0.700000 0.796992 0.321569
0.705000 0.796992 0.337255
0.710000 0.796992 0.466667
0.715000 0.796992 0.474510
0.720000 0.796992 0.294118
0.725000 0.796992 0.325490
0.730000 0.796992 0.403922
0.735000 0.796992 0.505882
0.740000 0.796992 0.427451
0.745000 0.796992 0.505882
0.750000 0.796992 0.423529
0.755000 0.796992 0.458824
0.760000 0.796992 0.423529
0.765000 0.796992 0.356863
0.770000 0.796992 0.333333
0.775000 0.796992 0.274510
0.960000 0.796992 0.301961
0.965000 0.796992 0.282353
0.970000 0.796992 0.321569
0.975000 0.796992 0.470588
0.980000 0.796992 0.650980
0.985000 0.796992 0.760784
0.990000 0.796992 0.705882
-0.975000 0.804511 0.196078
-0.970000 0.804511 0.152941
-0.965000 0.804511 0.282353
-0.960000 0.804511 0.254902
-0.955000 0.804511 0.254902
-0.950000 0.804511 0.200000
-0.945000 0.804511 0.211765
-0.940000 0.804511 0.239216
-0.935000 0.804511 0.337255
-0.930000 0.804511 0.313725
-0.925000 0.804511 0.537255
-0.920000 0.804511 0.505882
-0.915000 0.804511 0.670588
-0.910000 0.804511 0.568627
-0.905000 0.804511 0.682353
-0.900000 0.804511 0.662745
-0.895000 0.804511 0.521569
-0.890000 0.804511 0.149020
-0.885000 0.804511 0.133333
-0.865000 0.804511 0.247059
-0.860000 0.804511 0.262745
-0.855000 0.804511 0.290196
-0.850000 0.804511 0.384314
-0.845000 0.804511 0.345098
-0.840000 0.804511 0.407843
-0.835000 0.804511 0.349020
-0.830000 0.804511 0.266667
-0.790000 0.804511 0.274510
-0.785000 0.804511 0.298039
-0.780000 0.804511 0.541176
-0.775000 0.804511 0.486275
-0.770000 0.804511 0.552941
-0.765000 0.804511 0.505882
-0.760000 0.804511 0.458824
-0.755000 0.804511 0.156863
-0.745000 0.804511 0.137255
-0.740000 0.804511 0.286275
-0.735000 0.804511 0.635294
-0.730000 0.804511 0.615686
-0.725000 0.804511 0.615686
-0.720000 0.804511 0.415686
-0.715000 0.804511 0.254902
-0.710000 0.804511 0.294118
-0.685000 0.804511 0.254902
-0.680000 0.804511 0.341176
-0.675000 0.804511 0.356863
-0.670000 0.804511 0.266667
-0.665000 0.804511 0.278431
-0.660000 0.804511 0.262745
-0.655000 0.804511 0.203922
-0.620000 0.804511 0.176471
-0.615000 0.804511 0.325490
-0.610000 0.804511 0.792157
-0.600000 0.804511 0.721569
-0.595000 0.804511 0.635294
-0.590000 0.804511 0.647059
-0.585000 0.804511 0.639216
-0.580000 0.804511 0.333333
-0.575000 0.804511 0.247059
-0.530000 0.804511 0.294118
-0.525000 0.804511 0.501961
-0.520000 0.804511 0.662745
-0.515000 0.804511 0.807843
-0.505000 0.804511 0.662745
-0.500000 0.804511 0.733333
-0.495000 0.804511 0.807843
-0.490000 0.804511 0.737255
-0.485000 0.804511 0.705882
-0.480000 0.804511 0.662745
-0.475000 0.804511 0.345098
-0.470000 0.804511 0.301961
-0.465000 0.804511 0.313725
-0.460000 0.804511 0.400000
-0.455000 0.804511 0.588235
-0.450000 0.804511 0.576471
-0.445000 0.804511 0.278431
-0.440000 0.804511 0.301961
-0.435000 0.804511 0.266667
-0.420000 0.804511 0.294118
-0.415000 0.804511 0.274510
-0.410000 0.804511 0.250980
-0.405000 0.804511 0.133333
-0.400000 0.804511 0.137255
-0.390000 0.804511 0.137255
-0.385000 0.804511 0.254902
-0.380000 0.804511 0.121569
-0.375000 0.804511 0.356863
-0.370000 0.804511 0.525490
-0.365000 0.804511 0.188235
-0.360000 0.804511 0.203922
-0.340000 0.804511 0.207843
-0.335000 0.804511 0.517647
-0.330000 0.804511 0.274510
-0.325000 0.804511 0.545098
-0.320000 0.804511 0.341176
-0.315000 0.804511 0.274510
-0.310000 0.804511 0.811765
-0.305000 0.804511 0.905882
-0.300000 0.804511 0.800000
-0.295000 0.804511 0.643137
-0.290000 0.804511 0.525490
-0.285000 0.804511 0.662745
-0.280000 0.804511 0.568627
-0.275000 0.804511 0.458824
-0.270000 0.804511 0.423529
-0.245000 0.804511 0.521569
-0.240000 0.804511 0.650980
-0.235000 0.804511 0.686275
-0.230000 0.804511 0.815686
-0.225000 0.804511 0.835294
-0.220000 0.804511 0.737255
-0.215000 0.804511 0.725490
-0.210000 0.804511 0.819608
-0.205000 0.804511 0.796078
-0.200000 0.804511 0.780392
-0.195000 0.804511 0.788235
-0.190000 0.804511 0.694118
-0.185000 0.804511 0.658824
-0.180000 0.804511 0.392157
-0.145000 0.804511 0.286275
-0.140000 0.804511 0.309804
-0.135000 0.804511 0.388235
-0.130000 0.804511 0.431373
-0.125000 0.804511 0.439216
-0.120000 0.804511 0.200000
-0.115000 0.804511 0.200000
-0.095000 0.804511 0.505882
-0.090000 0.804511 0.396078
-0.085000 0.804511 0.682353
-0.080000 0.804511 0.741176
-0.070000 0.804511 0.584314
-0.065000 0.804511 0.686275
-0.060000 0.804511 0.729412
-0.055000 0.804511 0.376471
-0.050000 0.804511 0.490196
-0.045000 0.804511 0.572549
-0.040000 0.804511 0.243137
-0.035000 0.804511 0.180392
0.015000 0.804511 0.223529
0.020000 0.804511 0.215686
0.025000 0.804511 0.168627
0.030000 0.804511 0.349020
0.035000 0.804511 0.717647
0.040000 0.804511 0.619608
0.045000 0.804511 0.223529
0.050000 0.804511 0.200000
0.055000 0.804511 0.160784
0.090000 0.804511 0.211765
0.095000 0.804511 0.435294
0.100000 0.804511 0.866667
0.105000 0.804511 0.921569
0.110000 0.804511 0.749020
0.115000 0.804511 0.219608
0.125000 0.804511 0.247059
0.130000 0.804511 0.149020
0.135000 0.804511 0.505882
0.140000 0.804511 0.592157
0.145000 0.804511 0.164706
0.150000 0.804511 0.196078
0.155000 0.804511 0.474510
0.160000 0.804511 0.447059
0.165000 0.804511 0.815686
0.215000 0.804511 0.792157
0.220000 0.804511 0.400000
0.225000 0.804511 0.121569
0.245000 0.804511 0.109804
0.250000 0.804511 0.505882
0.255000 0.804511 0.772549
0.270000 0.804511 0.764706
0.275000 0.804511 0.650980
0.280000 0.804511 0.588235
0.285000 0.804511 0.396078
0.290000 0.804511 0.823529
0.295000 0.804511 0.694118
0.300000 0.804511 0.764706
0.305000 0.804511 0.674510
0.310000 0.804511 0.254902
0.315000 0.804511 0.482353
0.320000 0.804511 0.729412
0.325000 0.804511 0.725490
0.330000 0.804511 0.635294
0.335000 0.804511 0.537255
0.340000 0.804511 0.450980
0.365000 0.804511 0.470588
0.370000 0.804511 0.356863
0.375000 0.804511 0.203922
0.400000 0.804511 0.290196
0.405000 0.804511 0.325490
0.410000 0.804511 0.407843
0.415000 0.804511 0.301961
0.420000 0.804511 0.250980
0.425000 0.804511 0.203922
0.430000 0.804511 0.478431
0.435000 0.804511 0.631373
0.440000 0.804511 0.301961
0.445000 0.804511 0.180392
0.450000 0.804511 0.360784
0.455000 0.804511 0.474510
0.460000 0.804511 0.443137
0.465000 0.804511 0.423529
0.470000 0.804511 0.513725
0.475000 0.804511 0.643137
0.480000 0.804511 0.643137
0.485000 0.804511 0.552941
0.490000 0.804511 0.654902
0.495000 0.804511 0.564706
0.500000 0.804511 0.443137
0.505000 0.804511 0.596078
0.510000 0.804511 0.580392
0.515000 0.804511 0.564706
0.520000 0.804511 0.337255
0.525000 0.804511 0.164706
0.570000 0.804511 0.294118
0.575000 0.804511 0.745098
0.580000 0.804511 0.843137
0.595000 0.804511 0.776471
0.600000 0.804511 0.533333
0.605000 0.804511 0.537255
0.630000 0.804511 0.301961
0.635000 0.804511 0.823529
0.640000 0.804511 0.929412
0.650000 0.804511 0.905882
0.655000 0.804511 0.447059
0.660000 0.804511 0.254902
0.670000 0.804511 0.298039
0.675000 0.804511 0.364706
0.680000 0.804511 0.105882
0.685000 0.804511 0.149020
0.690000 0.804511 0.235294
0.695000 0.804511 0.356863
0.700000 0.804511 0.396078
0.710000 0.804511 0.309804
0.715000 0.804511 0.423529
0.720000 0.804511 0.294118
0.725000 0.804511 0.360784
0.730000 0.804511 0.462745
0.735000 0.804511 0.462745
0.755000 0.804511 0.458824
0.760000 0.804511 0.462745
0.765000 0.804511 0.388235
0.770000 0.804511 0.392157
0.775000 0.804511 0.356863
0.905000 0.804511 0.235294
0.910000 0.804511 0.239216
0.915000 0.804511 0.254902
0.960000 0.804511 0.262745
0.965000 0.804511 0.274510
0.970000 0.804511 0.278431
0.975000 0.804511 0.352941
0.980000 0.804511 0.525490
0.985000 0.804511 0.717647
0.990000 0.804511 0.647059
0.995000 0.804511 0.650980
-0.995000 0.812030 0.156863
-0.990000 0.812030 0.062745
-0.985000 0.812030 0.117647
-0.980000 0.812030 0.231373
-0.975000 0.812030 0.145098
-0.970000 0.812030 0.133333
-0.965000 0.812030 0.239216
-0.960000 0.812030 0.247059
-0.955000 0.812030 0.235294
-0.950000 0.812030 0.168627
-0.940000 0.812030 0.360784
-0.935000 0.812030 0.623529
-0.930000 0.812030 0.686275
-0.925000 0.812030 0.776471
-0.920000 0.812030 0.643137
-0.915000 0.812030 0.501961
-0.910000 0.812030 0.345098
-0.895000 0.812030 0.607843
-0.890000 0.812030 0.105882
-0.885000 0.812030 0.094118
-0.870000 0.812030 0.211765
-0.865000 0.812030 0.278431
-0.860000 0.812030 0.305882
-0.855000 0.812030 0.301961
-0.850000 0.812030 0.482353
-0.845000 0.812030 0.458824
-0.840000 0.812030 0.435294
-0.835000 0.812030 0.352941
-0.830000 0.812030 0.270588
-0.825000 0.812030 0.337255
-0.820000 0.812030 0.298039
-0.795000 0.812030 0.270588
-0.790000 0.812030 0.286275
-0.785000 0.812030 0.337255
-0.780000 0.812030 0.541176
-0.765000 0.812030 0.494118
-0.760000 0.812030 0.525490
-0.755000 0.812030 0.239216
-0.745000 0.812030 0.180392
-0.740000 0.812030 0.200000
-0.735000 0.812030 0.545098
-0.730000 0.812030 0.607843
-0.725000 0.812030 0.592157
-0.720000 0.812030 0.392157
-0.715000 0.812030 0.266667
-0.710000 0.812030 0.258824
-0.705000 0.812030 0.294118
-0.700000 0.812030 0.258824
-0.695000 0.812030 0.231373
-0.690000 0.812030 0.329412
-0.685000 0.812030 0.278431
-0.680000 0.812030 0.388235
-0.675000 0.812030 0.250980
-0.670000 0.812030 0.305882
-0.665000 0.812030 0.309804
-0.660000 0.812030 0.415686
-0.655000 0.812030 0.200000
-0.650000 0.812030 0.274510
-0.620000 0.812030 0.192157
-0.615000 0.812030 0.345098
-0.610000 0.812030 0.835294
-0.590000 0.812030 0.800000
-0.585000 0.812030 0.764706
-0.580000 0.812030 0.392157
-0.575000 0.812030 0.360784
-0.570000 0.812030 0.254902
-0.530000 0.812030 0.270588
-0.525000 0.812030 0.549020
-0.520000 0.812030 0.776471
-0.510000 0.812030 0.305882
-0.505000 0.812030 0.725490
-0.500000 0.812030 0.901961
-0.495000 0.812030 0.854902
-0.490000 0.812030 0.768627
-0.485000 0.812030 0.886275
-0.480000 0.812030 0.847059
-0.475000 0.812030 0.349020
-0.470000 0.812030 0.505882
-0.465000 0.812030 0.768627
-0.460000 0.812030 0.698039
-0.455000 0.812030 0.376471
-0.450000 0.812030 0.454902
-0.445000 0.812030 0.349020
-0.440000 0.812030 0.341176
-0.435000 0.812030 0.372549
-0.430000 0.812030 0.388235
-0.425000 0.812030 0.403922
-0.420000 0.812030 0.301961
-0.415000 0.812030 0.372549
-0.410000 0.812030 0.392157
-0.405000 0.812030 0.200000
-0.400000 0.812030 0.172549
-0.395000 0.812030 0.137255
-0.390000 0.812030 0.113725
-0.385000 0.812030 0.176471
-0.380000 0.812030 0.129412
-0.375000 0.812030 0.388235
-0.370000 0.812030 0.509804
-0.365000 0.812030 0.203922
-0.360000 0.812030 0.203922
-0.335000 0.812030 0.247059
-0.330000 0.812030 0.133333
-0.325000 0.812030 0.270588
-0.320000 0.812030 0.262745
-0.315000 0.812030 0.305882
-0.310000 0.812030 0.874510
-0.300000 0.812030 0.858824
-0.295000 0.812030 0.756863
-0.290000 0.812030 0.768627
-0.285000 0.812030 0.745098
-0.280000 0.812030 0.650980
-0.275000 0.812030 0.454902
-0.270000 0.812030 0.235294
-0.245000 0.812030 0.266667
-0.240000 0.812030 0.360784
-0.235000 0.812030 0.388235
-0.230000 0.812030 0.768627
-0.225000 0.812030 0.780392
-0.220000 0.812030 0.396078
-0.215000 0.812030 0.419608
-0.210000 0.812030 0.662745
-0.205000 0.812030 0.733333
-0.200000 0.812030 0.576471
-0.195000 0.812030 0.686275
-0.190000 0.812030 0.552941
-0.185000 0.812030 0.384314
-0.180000 0.812030 0.341176
-0.150000 0.812030 0.200000
-0.145000 0.812030 0.333333
-0.140000 0.812030 0.454902
-0.135000 0.812030 0.474510
-0.130000 0.812030 0.541176
-0.125000 0.812030 0.521569
-0.120000 0.812030 0.215686
-0.115000 0.812030 0.262745
-0.095000 0.812030 0.301961
-0.090000 0.812030 0.235294
-0.085000 0.812030 0.360784
-0.080000 0.812030 0.623529
-0.065000 0.812030 0.568627
-0.060000 0.812030 0.647059
-0.055000 0.812030 0.345098
-0.050000 0.812030 0.454902
-0.045000 0.812030 0.513725
-0.040000 0.812030 0.235294
-0.035000 0.812030 0.180392
-0.020000 0.812030 0.149020
-0.015000 0.812030 0.235294
-0.010000 0.812030 0.223529
0.015000 0.812030 0.313725
0.020000 0.812030 0.423529
0.025000 0.812030 0.443137
0.030000 0.812030 0.505882
0.035000 0.812030 0.690196
0.040000 0.812030 0.592157
0.045000 0.812030 0.227451
0.050000 0.812030 0.227451
0.055000 0.812030 0.270588
0.060000 0.812030 0.211765
0.065000 0.812030 0.231373
0.070000 0.812030 0.145098
0.090000 0.812030 0.196078
0.095000 0.812030 0.419608
0.100000 0.812030 0.917647
0.105000 0.812030 0.909804
0.110000 0.812030 0.537255
0.115000 0.812030 0.203922
0.125000 0.812030 0.223529
0.130000 0.812030 0.278431
0.135000 0.812030 0.184314
0.145000 0.812030 0.207843
0.150000 0.812030 0.129412
0.155000 0.812030 0.368627
0.160000 0.812030 0.333333
0.165000 0.812030 0.803922
0.180000 0.812030 0.643137
0.185000 0.812030 0.807843
0.190000 0.812030 0.752941
0.195000 0.812030 0.752941
0.200000 0.812030 0.811765
0.205000 0.812030 0.682353
0.215000 0.812030 0.788235
0.220000 0.812030 0.270588
0.225000 0.812030 0.105882
0.245000 0.812030 0.137255
0.250000 0.812030 0.474510
0.255000 0.812030 0.756863
0.270000 0.812030 0.721569
0.275000 0.812030 0.600000
0.280000 0.812030 0.537255
0.285000 0.812030 0.454902
0.290000 0.812030 0.772549
0.295000 0.812030 0.686275
0.300000 0.812030 0.749020
0.305000 0.812030 0.650980
0.310000 0.812030 0.298039
0.315000 0.812030 0.521569
0.320000 0.812030 0.701961
0.330000 0.812030 0.611765
0.335000 0.812030 0.474510
0.340000 0.812030 0.423529
0.365000 0.812030 0.486275
0.370000 0.812030 0.329412
0.375000 0.812030 0.188235
0.395000 0.812030 0.231373
0.400000 0.812030 0.278431
0.405000 0.812030 0.243137
0.410000 0.812030 0.239216
0.415000 0.812030 0.219608
0.420000 0.812030 0.243137
0.425000 0.812030 0.141176
0.430000 0.812030 0.137255
0.435000 0.812030 0.180392
0.440000 0.812030 0.082353
0.445000 0.812030 0.109804
0.450000 0.812030 0.282353
0.455000 0.812030 0.215686
0.460000 0.812030 0.207843
0.465000 0.812030 0.203922
0.470000 0.812030 0.223529
0.475000 0.812030 0.556863
0.490000 0.812030 0.698039
0.495000 0.812030 0.611765
0.500000 0.812030 0.647059
0.510000 0.812030 0.486275
0.515000 0.812030 0.462745
0.520000 0.812030 0.286275
0.525000 0.812030 0.156863
0.570000 0.812030 0.286275
0.575000 0.812030 0.745098
0.580000 0.812030 0.850980
0.595000 0.812030 0.776471
0.600000 0.812030 0.560784
0.605000 0.812030 0.545098
0.630000 0.812030 0.294118
0.635000 0.812030 0.807843
0.640000 0.812030 0.921569
0.650000 0.812030 0.913725
0.655000 0.812030 0.509804
0.660000 0.812030 0.305882
0.670000 0.812030 0.384314
0.675000 0.812030 0.388235
0.680000 0.812030 0.090196
0.685000 0.812030 0.078431
0.690000 0.812030 0.133333
0.695000 0.812030 0.227451
0.700000 0.812030 0.403922
0.760000 0.812030 0.415686
0.765000 0.812030 0.360784
0.770000 0.812030 0.313725
0.775000 0.812030 0.254902
0.900000 0.812030 0.352941
0.905000 0.812030 0.345098
0.910000 0.812030 0.317647
0.915000 0.812030 0.258824
0.920000 0.812030 0.227451
0.925000 0.812030 0.254902
0.930000 0.812030 0.266667
0.970000 0.812030 0.262745
0.975000 0.812030 0.270588
0.980000 0.812030 0.286275
0.985000 0.812030 0.443137
0.990000 0.812030 0.513725
0.995000 0.812030 0.643137
-0.995000 0.819549 0.196078
-0.990000 0.819549 0.188235
-0.985000 0.819549 0.184314
-0.980000 0.819549 0.317647
-0.975000 0.819549 0.294118
-0.970000 0.819549 0.184314
-0.965000 0.819549 0.176471
-0.960000 0.819549 0.203922
-0.955000 0.819549 0.270588
-0.950000 0.819549 0.266667
-0.940000 0.819549 0.474510
-0.935000 0.819549 0.725490
-0.930000 0.819549 0.760784
-0.925000 0.819549 0.780392
-0.920000 0.819549 0.737255
-0.915000 0.819549 0.529412
-0.910000 0.819549 0.580392
-0.895000 0.819549 0.701961
-0.890000 0.819549 0.156863
-0.885000 0.819549 0.156863
-0.870000 0.819549 0.133333
-0.865000 0.819549 0.368627
-0.860000 0.819549 0.576471
-0.855000 0.819549 0.486275
-0.850000 0.819549 0.635294
-0.845000 0.819549 0.749020
-0.840000 0.819549 0.639216
-0.835000 0.819549 0.643137
-0.830000 0.819549 0.670588
-0.825000 0.819549 0.576471
-0.820000 0.819549 0.400000
-0.795000 0.819549 0.164706
-0.790000 0.819549 0.262745
-0.785000 0.819549 0.274510
-0.780000 0.819549 0.541176
-0.765000 0.819549 0.490196
-0.760000 0.819549 0.341176
-0.755000 0.819549 0.129412
-0.745000 0.819549 0.117647
-0.740000 0.819549 0.121569
-0.735000 0.819549 0.427451
-0.730000 0.819549 0.588235
-0.725000 0.819549 0.603922
-0.720000 0.819549 0.423529
-0.715000 0.819549 0.329412
-0.710000 0.819549 0.356863
-0.705000 0.819549 0.470588
-0.700000 0.819549 0.498039
-0.695000 0.819549 0.568627
-0.690000 0.819549 0.760784
-0.685000 0.819549 0.388235
-0.680000 0.819549 0.435294
-0.675000 0.819549 0.396078
-0.670000 0.819549 0.729412
-0.665000 0.819549 0.819608
-0.660000 0.819549 0.823529
-0.655000 0.819549 0.305882
-0.650000 0.819549 0.298039
-0.620000 0.819549 0.168627
-0.615000 0.819549 0.329412
-0.610000 0.819549 0.831373
-0.585000 0.819549 0.686275
-0.580000 0.819549 0.349020
-0.575000 0.819549 0.447059
-0.570000 0.819549 0.298039
-0.565000 0.819549 0.278431
-0.560000 0.819549 0.270588
-0.555000 0.819549 0.266667
-0.550000 0.819549 0.258824
-0.535000 0.819549 0.254902
-0.530000 0.819549 0.282353
-0.525000 0.819549 0.556863
-0.520000 0.819549 0.737255
-0.510000 0.819549 0.313725
-0.505000 0.819549 0.729412
-0.500000 0.819549 0.866667
-0.495000 0.819549 0.831373
-0.490000 0.819549 0.737255
-0.485000 0.819549 0.827451
-0.480000 0.819549 0.800000
-0.475000 0.819549 0.450980
-0.470000 0.819549 0.450980
-0.460000 0.819549 0.607843
-0.455000 0.819549 0.443137
-0.450000 0.819549 0.290196
-0.445000 0.819549 0.274510
-0.440000 0.819549 0.341176
-0.435000 0.819549 0.501961
-0.430000 0.819549 0.482353
-0.425000 0.819549 0.478431
-0.420000 0.819549 0.564706
-0.415000 0.819549 0.623529
-0.410000 0.819549 0.776471
-0.405000 0.819549 0.690196
-0.400000 0.819549 0.309804
-0.395000 0.819549 0.180392
-0.390000 0.819549 0.192157
-0.385000 0.819549 0.278431
-0.380000 0.819549 0.164706
-0.375000 0.819549 0.372549
-0.370000 0.819549 0.466667
-0.365000 0.819549 0.207843
-0.360000 0.819549 0.176471
-0.320000 0.819549 0.250980
-0.315000 0.819549 0.333333
-0.310000 0.819549 0.890196
-0.280000 0.819549 0.690196
-0.275000 0.819549 0.380392
-0.270000 0.819549 0.074510
-0.245000 0.819549 0.188235
-0.240000 0.819549 0.364706
-0.235000 0.819549 0.368627
-0.230000 0.819549 0.752941
-0.225000 0.819549 0.772549
-0.220000 0.819549 0.376471
-0.215000 0.819549 0.325490
-0.210000 0.819549 0.345098
-0.205000 0.819549 0.517647
-0.200000 0.819549 0.443137
-0.195000 0.819549 0.333333
-0.190000 0.819549 0.243137
-0.185000 0.819549 0.266667
-0.180000 0.819549 0.243137
-0.155000 0.819549 0.262745
-0.150000 0.819549 0.180392
-0.145000 0.819549 0.301961
-0.140000 0.819549 0.447059
-0.135000 0.819549 0.462745
-0.130000 0.819549 0.525490
-0.125000 0.819549 0.533333
-0.120000 0.819549 0.290196
-0.115000 0.819549 0.239216
-0.110000 0.819549 0.219608
-0.105000 0.819549 0.203922
-0.100000 0.819549 0.247059
-0.095000 0.819549 0.286275
-0.090000 0.819549 0.254902
-0.085000 0.819549 0.356863
-0.080000 0.819549 0.733333
-0.065000 0.819549 0.607843
-0.060000 0.819549 0.682353
-0.055000 0.819549 0.388235
-0.050000 0.819549 0.470588
-0.045000 0.819549 0.517647
-0.040000 0.819549 0.235294
-0.035000 0.819549 0.200000
-0.030000 0.819549 0.188235
-0.025000 0.819549 0.121569
-0.020000 0.819549 0.109804
-0.015000 0.819549 0.192157
-0.010000 0.819549 0.196078
0.015000 0.819549 0.254902
0.020000 0.819549 0.560784
0.025000 0.819549 0.584314
0.030000 0.819549 0.560784
0.040000 0.819549 0.454902
0.045000 0.819549 0.427451
0.050000 0.819549 0.509804
0.055000 0.819549 0.498039
0.060000 0.819549 0.305882
0.065000 0.819549 0.266667
0.070000 0.819549 0.149020
0.090000 0.819549 0.200000
0.095000 0.819549 0.443137
0.100000 0.819549 0.917647
0.105000 0.819549 0.866667
0.110000 0.819549 0.372549
0.115000 0.819549 0.219608
0.155000 0.819549 0.203922
0.160000 0.819549 0.286275
0.165000 0.819549 0.741176
0.180000 0.819549 0.588235
0.185000 0.819549 0.729412
0.190000 0.819549 0.427451
0.195000 0.819549 0.415686
0.200000 0.819549 0.670588
0.205000 0.819549 0.800000
0.210000 0.819549 0.819608
0.215000 0.819549 0.768627
0.220000 0.819549 0.286275
0.225000 0.819549 0.121569
0.245000 0.819549 0.105882
0.250000 0.819549 0.482353
0.255000 0.819549 0.741176
0.260000 0.819549 0.611765
0.265000 0.819549 0.670588
0.270000 0.819549 0.717647
0.275000 0.819549 0.588235
0.280000 0.819549 0.596078
0.285000 0.819549 0.435294
0.290000 0.819549 0.792157
0.295000 0.819549 0.682353
0.300000 0.819549 0.756863
0.305000 0.819549 0.654902
0.310000 0.819549 0.309804
0.315000 0.819549 0.505882
0.320000 0.819549 0.721569
0.325000 0.819549 0.694118
0.330000 0.819549 0.658824
0.335000 0.819549 0.447059
0.340000 0.819549 0.400000
0.350000 0.819549 0.341176
0.355000 0.819549 0.376471
0.360000 0.819549 0.396078
0.365000 0.819549 0.329412
0.370000 0.819549 0.317647
0.375000 0.819549 0.184314
0.390000 0.819549 0.192157
0.395000 0.819549 0.207843
0.400000 0.819549 0.262745
0.405000 0.819549 0.250980
0.410000 0.819549 0.250980
0.415000 0.819549 0.282353
0.420000 0.819549 0.215686
0.425000 0.819549 0.141176
0.440000 0.819549 0.125490
0.445000 0.819549 0.109804
0.450000 0.819549 0.250980
0.455000 0.819549 0.129412
0.460000 0.819549 0.196078
0.465000 0.819549 0.168627
0.470000 0.819549 0.192157
0.475000 0.819549 0.615686
0.510000 0.819549 0.400000
0.515000 0.819549 0.325490
0.520000 0.819549 0.266667
0.525000 0.819549 0.188235
0.570000 0.819549 0.278431
0.575000 0.819549 0.741176
0.580000 0.819549 0.854902
0.595000 0.819549 0.788235
0.600000 0.819549 0.603922
0.605000 0.819549 0.568627
0.630000 0.819549 0.309804
0.635000 0.819549 0.823529
0.640000 0.819549 0.921569
0.650000 0.819549 0.905882
0.655000 0.819549 0.545098
0.660000 0.819549 0.356863
0.670000 0.819549 0.411765
0.675000 0.819549 0.400000
0.680000 0.819549 0.090196
0.685000 0.819549 0.090196
0.690000 0.819549 0.152941
0.695000 0.819549 0.203922
0.700000 0.819549 0.349020
0.705000 0.819549 0.443137
0.715000 0.819549 0.329412
0.720000 0.819549 0.454902
0.725000 0.819549 0.501961
0.730000 0.819549 0.509804
0.735000 0.819549 0.443137
0.740000 0.819549 0.325490
0.760000 0.819549 0.341176
0.765000 0.819549 0.282353
0.770000 0.819549 0.352941
0.775000 0.819549 0.372549
0.880000 0.819549 0.341176
0.885000 0.819549 0.360784
0.890000 0.819549 0.309804
0.895000 0.819549 0.317647
0.900000 0.819549 0.313725
0.905000 0.819549 0.325490
0.910000 0.819549 0.423529
0.915000 0.819549 0.396078
0.920000 0.819549 0.376471
0.925000 0.819549 0.341176
0.930000 0.819549 0.270588
0.935000 0.819549 0.274510
0.980000 0.819549 0.254902
0.985000 0.819549 0.270588
0.990000 0.819549 0.294118
0.995000 0.819549 0.352941
-0.995000 0.827068 0.125490
-0.990000 0.827068 0.423529
-0.985000 0.827068 0.580392
-0.980000 0.827068 0.431373
-0.975000 0.827068 0.223529
-0.970000 0.827068 0.313725
-0.965000 0.827068 0.266667
-0.960000 0.827068 0.400000
-0.955000 0.827068 0.505882
-0.950000 0.827068 0.305882
-0.940000 0.827068 0.352941
-0.935000 0.827068 0.615686
-0.930000 0.827068 0.772549
-0.925000 0.827068 0.850980
-0.920000 0.827068 0.803922
-0.915000 0.827068 0.419608
-0.910000 0.827068 0.478431
-0.905000 0.827068 0.231373
-0.900000 0.827068 0.329412
-0.895000 0.827068 0.537255
-0.890000 0.827068 0.109804
-0.885000 0.827068 0.145098
-0.870000 0.827068 0.168627
-0.865000 0.827068 0.701961
-0.860000 0.827068 0.886275
-0.855000 0.827068 0.803922
-0.835000 0.827068 0.850980
